-1.016312562140055675e+01 3.737630033104194283e+00 -1.320101139552395075e+01
-9.928475002034142349e+00 2.525741839029867375e+00 -1.246809136608884039e+01
-1.094197722308219944e+01 1.546824130532938879e+00 -1.227404750436838654e+01
-1.065188592983717442e+01 3.713196708663222267e-01 -1.149674947784791179e+01
-1.166799120938751422e+01 -6.081592074755843846e-01 -1.155275402396746109e+01
-6.783069079814875835e+00 6.443746634723982680e+00 -1.437712583980978742e+01
-9.304391413948163603e+00 5.912165138177225998e+00 -1.411772990157036922e+01
-8.506072888772711948e+00 7.994838477469141225e+00 -1.497637836752378071e+01
-8.184688208588713820e+00 6.787412509993874465e+00 -1.432479341379812432e+01
-8.417952065173487597e+00 3.051619541013739223e-02 -1.887281080456848414e+01
-8.743775187549879035e+00 -1.307050466765725005e+00 -1.839879069767443909e+01
-7.892389530906100958e+00 -2.228012168033261187e+00 -1.768848315949294303e+01
-8.073143375171051517e+00 -3.589465650384375373e+00 -1.725440486813716134e+01
-7.156481898742593550e+00 -4.446981607703381911e+00 -1.652298182873133925e+01
-7.289799672413639797e+00 -5.864359696880725892e+00 -1.626610898628177182e+01
-1.010249416994140503e+01 -1.701056936326414526e+00 -1.817514294052510948e+01
-1.043596958736110913e+01 -2.889555084432874565e+00 -1.744222267142429317e+01
-9.462813718990625844e+00 -3.910437096220954700e+00 -1.719781707326233189e+01
-9.758891963445570639e+00 -5.127320630863964723e+00 -1.652550441649659163e+01
-8.714925198743170398e+00 -6.091647616249045605e+00 -1.631844110779411139e+01
-9.134474799251321997e+00 -7.268569284163268307e+00 -1.566685664064287842e+01
-9.325750570850717125e+00 9.292277382401776809e-01 -1.955816905242126325e+01
-1.103209814139306211e+01 -6.421409166556291126e-01 -1.836918717426867076e+01
-1.157851254259899143e+01 1.565228545783761582e+00 -1.909048122885497989e+01
-1.064636036411862996e+01 5.055393619201740130e-01 -1.914648550576983510e+01
-9.666087055321874288e+00 8.116526188753788063e+00 -1.577550265638702953e+01
-1.059018166689467577e+01 7.065184818810573475e+00 -1.588394233295211322e+01
-1.110803519485070545e+01 6.892289891878803587e+00 -1.720640937784221691e+01
-1.178897165727365959e+01 5.649092688188124711e+00 -1.733476937335425916e+01
-1.165582378690078613e+01 5.119624607800749239e+00 -1.865723654697541534e+01
-1.204416360356765736e+01 3.774834045949621242e+00 -1.876567676959151143e+01
-1.051493991752572654e+01 6.040252280195883117e+00 -1.489207661868044319e+01
-1.142491470608233861e+01 4.944124396563972290e+00 -1.496960662358291394e+01
-1.211273035110010454e+01 4.782940542941332751e+00 -1.622144591730474517e+01
-1.269998731623715216e+01 3.487824735840993284e+00 -1.639552379378881497e+01
-1.265396385447005301e+01 3.032108140702392429e+00 -1.773526939427602755e+01
-1.252110936554959153e+01 1.662601607829300221e+00 -1.804254554327127735e+01
-1.133144068366255297e+01 3.862166480957585080e+00 -1.403128156394524595e+01
-1.215731282160294846e+01 2.699724276609124729e+00 -1.415303451413573121e+01
-1.278572787035488822e+01 2.444247114127985121e+00 -1.541837684866972857e+01
-1.301742403241009249e+01 1.068994675974752173e+00 -1.579053729895246683e+01
-1.271751314905962005e+01 6.296677806066388605e-01 -1.711553742931666378e+01
-1.212182085229220974e+01 -6.301299284313741644e-01 -1.742125665525188793e+01
-1.202899917467991564e+01 1.624430609419218019e+00 -1.322197816302186446e+01
-1.272623255405741283e+01 4.178631637534473420e-01 -1.352769785374447586e+01
-1.306124222707335392e+01 4.676056281664564551e-03 -1.485269764953225291e+01
-1.294337783116949403e+01 -1.384967899402625324e+00 -1.522485792206864197e+01
-1.233809050541709595e+01 -1.691237040417690185e+00 -1.649020037458552324e+01
-1.161056801424224005e+01 -2.917632944799092964e+00 -1.661195254360413998e+01
-1.261540181253483439e+01 -6.277198463012174656e-01 -1.260068995012099258e+01
-1.286038243477325871e+01 -1.981670564064487827e+00 -1.290796555849224880e+01
-1.294371106350832434e+01 -2.432061766441998341e+00 -1.424771098790938062e+01
-1.246490227346527391e+01 -3.771068076306995920e+00 -1.442178833469548138e+01
-1.179266425337725543e+01 -3.988245809133341258e+00 -1.567362772101645874e+01
-1.075164330375652710e+01 5.608098391670324645e+00 -1.964910202462761646e+01
6.526186169654243585e+00 3.199098925866140419e+00 -2.670658108759226490e+00
6.695309322235962313e+00 1.784420573739450955e+00 -2.863655522413242505e+00
6.479628802487297001e+00 9.492603450653810393e-01 -1.708511572743190987e+00
6.532003606873471924e+00 -4.686282779579715729e-01 -1.649112148246640208e+00
6.808711838016536788e+00 -1.285599918243819806e+00 -4.939678051550941418e-01
6.241470669165608776e+00 3.724161795593369018e+00 3.210979726954290125e+00
5.142705984612188530e+00 4.866867547881163603e+00 -1.344763309018837338e+00
5.744276734206336776e+00 3.592066357264041443e+00 -1.537617508156823964e+00
5.770973790003018244e+00 2.779935961341471362e+00 -3.674258705947276993e-01
6.285390812924076975e+00 1.469485736877787607e+00 -4.112672640132365998e-01
6.743632173971325194e+00 7.956539917120348804e-01 7.577995489844803201e-01
7.259658953237710932e+00 -5.305848003371584909e-01 6.376923121557752649e-01
3.515859898602834654e+00 6.373608951668993328e+00 -9.737127544024647141e-02
4.345828961316999361e+00 5.217605123480216989e+00 -2.174780186486983957e-01
4.660556613539120541e+00 4.465952422179531922e+00 9.515881606688018080e-01
5.478171900020142537e+00 3.319911343119366087e+00 9.077472228603306048e-01
6.144234127154859060e+00 2.854477495131870768e+00 2.077939128275090308e+00
6.884425994386124792e+00 1.654843639022350876e+00 1.885084968743464762e+00
8.383284728301306998e+00 -8.434568285670280829e-01 1.471525106736839339e+00
8.828988010917633744e+00 3.299783365795856405e-01 2.202948461145318060e+00
8.067485866248739868e+00 1.472931448150047062e+00 2.637027055093254635e+00
8.426651609476552451e+00 2.674608628867344073e+00 3.347334714764295338e+00
7.545398510435965100e+00 3.732265590467338079e+00 3.821354622240357823e+00
7.965012137781203982e+00 4.938791867758289378e+00 4.506712433280250174e+00
1.021809505800684548e+01 6.533794444498965959e-01 2.146361178661298386e+00
1.064262704182081265e+01 1.998371914693390705e+00 2.390766878402564632e+00
9.820109861078714530e+00 2.918806266230668189e+00 3.123686907837676774e+00
1.018879495586035056e+01 4.278783447276027552e+00 3.317730769558129733e+00
9.337313897602392387e+00 5.139564314013075119e+00 4.095028796078604039e+00
9.707946738119547447e+00 6.501357290121475785e+00 4.039024249959055624e+00
9.126805146391360424e+00 -2.057504472379452221e+00 1.214652434116728186e+00
1.101952420784611419e+01 -3.090023264053449736e-01 1.474048372356146386e+00
1.140122839034313706e+01 -2.506533355287514198e+00 6.153999064027367849e-01
1.050651715582784007e+01 -1.634376611105217147e+00 1.266984860128391288e+00
7.244339605531269655e+00 4.287469170673060326e+00 -3.281032530641970535e+00
6.838712619420698857e+00 5.603034460188648147e+00 -2.807012423747925478e+00
5.635671571274274427e+00 5.957604944035097105e+00 -2.096704885566429422e+00
5.093229534911193568e+00 7.219343496195887333e+00 -1.662626594210644404e+00
3.866646516245302756e+00 7.485981786291668882e+00 -9.312035548048241962e-01
3.254812097460469289e+00 8.771436149716075548e+00 -6.743307123552567672e-01
7.803574260283003383e+00 6.637636018837794083e+00 -2.583364666598592319e+00
7.480906781953374995e+00 7.829113840915960409e+00 -1.850444397497778004e+00
6.122095752985766026e+00 8.207088725918090688e+00 -1.606038799335816725e+00
5.752768668676729646e+00 9.403778062596819254e+00 -9.337261425700748019e-01
4.362131501200110506e+00 9.696901601361076928e+00 -7.266628338675981125e-01
4.119310258002395919e+00 1.092254605369807585e+01 -7.507836671636079762e-02
8.484421935959714389e+00 3.980913502180502661e+00 -3.966390778494747860e+00
9.144476258174952576e+00 6.204682773667497209e+00 -2.777408900342153597e+00
1.074483456363612355e+01 4.589163681952192597e+00 -3.498702954928466280e+00
9.401348159537652904e+00 5.021475065385150316e+00 -3.554707231843321491e+00
1.245971835937136873e+01 -2.016594837574268162e+00 -1.837243824605127862e-01
1.271451434753323184e+01 -6.402414920599039938e-01 -2.921640590255964454e-01
1.307061003558378864e+01 -2.264048176011885793e-01 -1.614631103915703525e+00
1.301828603473708768e+01 1.190096489160228810e+00 -1.742991099427745771e+00
1.263262940086859842e+01 1.576533759991019856e+00 -3.065458273048898175e+00
1.227698523694649069e+01 2.930338286915375789e+00 -3.173898495664997821e+00
1.212468856006656281e+01 2.013365316542237160e-01 6.997016552460734173e-01
1.234440922140094621e+01 1.608913628678327212e+00 6.221716503436035550e-01
1.285245674213842548e+01 2.099788676803969079e+00 -6.296676433782301130e-01
1.269308282015177980e+01 3.512868876188891321e+00 -8.037455198622981412e-01
1.242003507898921910e+01 3.880619749965923848e+00 -2.143491120349512169e+00
1.160416318795244450e+01 4.988568988976662233e+00 -2.450767269344760191e+00
1.170970499305032675e+01 2.490117842538257520e+00 1.560496709981270547e+00
1.182322270128044117e+01 3.911543323031319019e+00 1.438743759790785282e+00
1.223194204673368723e+01 4.452951256755594223e+00 1.734014252567890046e-01
1.172617432627578715e+01 5.752644063960566712e+00 -1.987590250259500813e-01
1.124350592387694547e+01 5.976219268917635219e+00 -1.523759155390148612e+00
1.008640276570275063e+01 6.752783407587946485e+00 -1.829478381325372771e+00
1.116201584330978314e+01 4.769171653753884854e+00 2.369800110904651813e+00
1.114245686591831053e+01 6.162569239750784078e+00 2.064080420182039521e+00
1.121840532945759605e+01 6.689054659948883597e+00 7.390806243942636966e-01
1.040508662878010959e+01 7.821977883525816466e+00 3.669203518578755818e-01
9.728367764092688219e+00 7.774806794596669235e+00 -8.984221006590099590e-01
8.475175120416508889e+00 8.455133251001724304e+00 -1.020174269677624812e+00
1.051148786212710107e+01 7.003643196330195053e+00 2.991088323805524585e+00
1.002804363354807826e+01 8.291851148975123209e+00 2.683812715434267471e+00
9.868802636872054279e+00 8.721313837137380176e+00 1.344067286017134988e+00
8.771480757408887996e+00 9.625791834731678875e+00 1.169989939231035114e+00
8.082923465991646239e+00 9.467807722481113686e+00 -8.184944708994200402e-02
1.210649971374981249e+01 6.937333658139830384e-01 -4.057323750701100629e+00
-3.913803053461602843e+00 6.124335516378804911e+00 -2.216038095116737239e+01
-2.527175480453936363e+00 6.451721304845460914e+00 -2.235337836482138485e+01
-1.673036974007119593e+00 6.331479440410566539e+00 -2.119823441515133666e+01
-2.700698950309403656e-01 6.543221365268629519e+00 -2.113883499065478233e+01
5.105367667860774006e-01 6.910186412297041336e+00 -1.998369064756323965e+01
-4.403456565864320993e+00 5.782292578757857626e+00 -1.627874311545385311e+01
-5.415134292908630798e+00 4.561813801828145110e+00 -2.083448615142698301e+01
-4.216201473553227608e+00 5.303140677800276315e+00 -2.102734035056496609e+01
-3.412245856236278740e+00 5.421140161502898458e+00 -1.985714871300287143e+01
-2.168074502607733489e+00 6.079883136477202576e+00 -1.990099010642137856e+01
-1.550143432667155929e+00 6.611103955506024477e+00 -1.873192329342366236e+01
-2.904652896362822645e-01 7.273224749943437928e+00 -1.885203053025236741e+01
-6.729052057561938582e+00 2.775611698710770181e+00 -1.958709411784839105e+01
-5.673885740598347383e+00 3.730503074415477460e+00 -1.970720086105684388e+01
-4.962464598352696932e+00 4.127888575927245007e+00 -1.853813468173933998e+01
-3.915806197462157190e+00 5.069382656326101078e+00 -1.858197561954781207e+01
-3.528354320337548700e+00 5.783629532539587892e+00 -1.741178371413305470e+01
-2.419723772453473920e+00 6.654229151961603250e+00 -1.760463787366467869e+01
-1.061409815876106499e-01 8.424940139220804980e+00 -1.801819773567130412e+01
-1.322309930869461692e+00 8.735640299729787728e+00 -1.728677438126282695e+01
-2.372220179573710119e+00 7.850250102556977971e+00 -1.685269578731488949e+01
-3.606704489448185669e+00 8.071782417217383099e+00 -1.614238812764384789e+01
-4.558373498222874076e+00 7.077010397743889847e+00 -1.566836822016778719e+01
-5.804484447166821326e+00 7.358059783029475831e+00 -1.498301040912789439e+01
-1.800111798191291967e+00 1.007948256741912552e+01 -1.734336166374684396e+01
-3.184361806495610736e+00 1.034982321327581545e+01 -1.709895596400557949e+01
-4.006296968147550430e+00 9.428869089474863685e+00 -1.636603593457046557e+01
-5.399146158246667326e+00 9.642030450228771699e+00 -1.617199207285001350e+01
-6.158545152452373550e+00 8.699015677962696813e+00 -1.539469404632954053e+01
-7.553417962732341451e+00 8.913907872771291707e+00 -1.545069859244908805e+01
1.016436731748388667e+00 9.300470590481424438e+00 -1.827507040829141616e+01
-9.341209423478984419e-01 1.098420749394773210e+01 -1.801567447005199796e+01
1.206434247348509459e+00 1.161099628269511896e+01 -1.887432293600540589e+01
4.406008882487104650e-01 1.062374512636230861e+01 -1.822273798227975306e+01
-5.076135127869798147e+00 6.715333228764388096e+00 -2.277075537305011466e+01
-6.337642296041440026e+00 6.164111905255451163e+00 -2.229673526615606960e+01
-6.554454976437297908e+00 4.928789982370604505e+00 -2.158642772797457354e+01
-7.747068095833458123e+00 4.247686844610475632e+00 -2.115234943661878830e+01
-7.873856528619645800e+00 2.998876781896233190e+00 -2.042092639721296976e+01
-9.082218708424862896e+00 2.246151653530632508e+00 -2.016405355476340233e+01
-7.474335201727029698e+00 7.006304050392647476e+00 -2.207308750900673644e+01
-8.621888447079399498e+00 6.551490625835969972e+00 -2.134016723990592013e+01
-8.844411831092633847e+00 5.158753834585130704e+00 -2.109576164174395885e+01
-9.991888038745095457e+00 4.656990726538805525e+00 -2.042344898497821859e+01
-1.012651535145504056e+01 3.242187338354576287e+00 -2.021638567627574190e+01
-1.131701109912632752e+01 2.862863789824919625e+00 -1.956480120912450360e+01
-4.911203784317956789e+00 7.982052698907618371e+00 -2.345611362090289376e+01
-7.195166161154758377e+00 8.387438123261777179e+00 -2.226713174275029772e+01
-5.770179506579449225e+00 1.015957290251460421e+01 -2.298842579733661040e+01
-6.048419681532370973e+00 8.775943163283285386e+00 -2.304443007425146561e+01
6.003929372097864814e-01 1.260756775332719570e+01 -1.967344722486865649e+01
-7.959005917539276886e-01 1.270572022790637234e+01 -1.978188690143374018e+01
-1.247211865050917634e+00 1.301293850010107533e+01 -2.110435394632384742e+01
-2.648806177792844441e+00 1.280140331245870122e+01 -2.123271394183588967e+01
-2.989346950009786674e+00 1.237467531244954699e+01 -2.255518111545704230e+01
-4.294479720426556568e+00 1.186881177350156058e+01 -2.266362133807314194e+01
-1.565689833862185854e+00 1.202485860298274289e+01 -1.879002118716207193e+01
-2.989057805403210644e+00 1.208464213478883664e+01 -1.886755119206453912e+01
-3.534031955657076729e+00 1.253416829838215563e+01 -2.011939048578637212e+01
-4.920169626034256893e+00 1.221664970732887667e+01 -2.029346836227044193e+01
-5.254826333737860011e+00 1.190391873331649464e+01 -2.163321396275765451e+01
-6.263831647068924369e+00 1.096844733531542460e+01 -2.194049011175290431e+01
-3.793166311936535973e+00 1.135472444509266410e+01 -1.792922613242687291e+01
-5.218332637336835944e+00 1.130742104540771287e+01 -1.805097908261735640e+01
-5.802330533131233814e+00 1.165255944048283787e+01 -1.931632141715135376e+01
-7.036787114971791546e+00 1.100362236517580250e+01 -1.968848186743409556e+01
-7.204575478041297387e+00 1.049884347876681190e+01 -2.101348199779829073e+01
-7.845870646375891155e+00 9.261636912668747001e+00 -2.131920122373351845e+01
-5.996030222437994439e+00 1.055382478160777282e+01 -1.711992273150348964e+01
-7.378358237899384164e+00 1.037744835481222339e+01 -1.742564242222610460e+01
-7.910047746900353616e+00 1.039361414626996272e+01 -1.875064221801387987e+01
-8.944155700400113318e+00 9.457866808630040367e+00 -1.912280249055026715e+01
-8.821064210440908937e+00 8.790767102023734125e+00 -2.038814494306715375e+01
-9.355911282027312481e+00 7.468921990271153888e+00 -2.050989711208577049e+01
-8.143012555454372858e+00 9.655762094151866037e+00 -1.649863451860261776e+01
-9.368571715781829568e+00 9.030300028202653095e+00 -1.680591012697387399e+01
-9.777365890346272792e+00 8.823700854951395556e+00 -1.814565555639100936e+01
-1.055249428184146154e+01 7.631487899150775078e+00 -1.831973290317710834e+01
-1.031796151192092914e+01 6.965106249402787775e+00 -1.957157228949808569e+01
-2.052904748106195054e+00 1.195132559162668251e+01 -2.354704659310924697e+01
1.409175726983599164e+00 7.130186787801877202e+00 1.227286459722401579e+00
2.637084522050933355e+00 6.407582143676646247e+00 1.034289046068385565e+00
3.170810282671626457e+00 5.729977903276807893e+00 2.189432995738437082e+00
4.330535510216949824e+00 4.912549824465897608e+00 2.248832420234987861e+00
5.148128342274263858e+00 4.637682461575768578e+00 3.403976763326534094e+00
8.189573182097500403e-01 7.221817368554988903e+00 7.108924295435918417e+00
-7.558525901731671937e-01 7.040064732281467563e+00 2.553181259462790731e+00
6.227966068890957718e-01 6.746241939078363892e+00 2.360327060324804105e+00
1.285056994202337544e+00 6.275413209957808824e+00 3.530518697886900537e+00
2.639260350306598557e+00 5.890656228755598356e+00 3.486677304468391636e+00
3.452969611141739392e+00 5.846934328079987253e+00 4.655744117466108278e+00
4.820708799587237969e+00 5.453891731347024319e+00 4.535636880637403223e+00
-2.940231491661988272e+00 6.658768705311647551e+00 3.800573293041381806e+00
-1.517704857381175110e+00 6.618625578733864145e+00 3.680466549832929868e+00
-7.290402016072921043e-01 6.413580853907967061e+00 4.849532729150429766e+00
6.780755202815798022e-01 6.369646166086289973e+00 4.805691791341958563e+00
1.451913318636678829e+00 6.617522383390491036e+00 5.975883696756718599e+00
2.854753784672537265e+00 6.479522325811521100e+00 5.783029537225092831e+00
5.750413487610687824e+00 6.158216217293068340e+00 5.369469675218467408e+00
5.086945547086330066e+00 7.223773252291193714e+00 6.100893029626946351e+00
3.716285221823462770e+00 7.310477371767803767e+00 6.534971623574882926e+00
2.977916703811749777e+00 8.324301818787228413e+00 7.245279283245923629e+00
1.602556394379271110e+00 8.264058211430379330e+00 7.719299190721986115e+00
8.969554040092608815e-01 9.328909607840344620e+00 8.404657001761878021e+00
5.671321853149044578e+00 8.524815525915363068e+00 6.044305747142926677e+00
4.858545057974280823e+00 9.677475940572758617e+00 6.288711446884192924e+00
3.627939165009668177e+00 9.580816516269985428e+00 7.021631476319305065e+00
2.769403923096678710e+00 1.069812751615839197e+01 7.215675338039758024e+00
1.568705820379375560e+00 1.054228221066687787e+01 7.992973364560232774e+00
7.099061685979690672e-01 1.166224291102565580e+01 7.936968818440684359e+00
7.166737501833308599e+00 6.014130894308281405e+00 5.112597002598356255e+00
6.922521550398476720e+00 8.579282696665210040e+00 5.371992940837774455e+00
8.902025591847401387e+00 7.551467316490825255e+00 4.513344474884364743e+00
7.666084453494862672e+00 7.368123153457523777e+00 5.164929428610019357e+00
9.784573317589524422e-01 8.360949076490539866e+00 6.169120378396576454e-01
-3.138997197996742372e-01 8.835352421889863805e+00 1.090932144733702591e+00
-1.324894803205461713e+00 8.093114634607596614e+00 1.801239682915198648e+00
-2.657326197388964140e+00 8.426062253035391691e+00 2.235317974270983665e+00
-3.612631441888642936e+00 7.611817959683489399e+00 2.966741013676803984e+00
-5.005974423496436287e+00 7.903930287497511920e+00 3.223613856126371413e+00
-5.523630421857803618e-01 1.022980343036715034e+01 1.314579901883035751e+00
-1.695738248468601661e+00 1.069502041171396911e+01 2.047500170983850065e+00
-2.819733108660246401e+00 9.843041550239609805e+00 2.291905769145811345e+00
-3.995525215593697332e+00 1.027429644586142388e+01 2.964218425911553378e+00
-5.071300536517838964e+00 9.345587342085847737e+00 3.171281734614030068e+00
-6.193478173272078280e+00 9.895026903148952613e+00 3.822866201765267480e+00
1.973697763398499117e+00 9.161746833327866213e+00 -6.844621001311955444e-02
6.045184437014166079e-01 1.103422366138172706e+01 1.120535668139474472e+00
2.859385815326261238e+00 1.132853944066795648e+01 3.992416135531619559e-01
1.701449074085215063e+00 1.052167430105215651e+01 3.432373366383067448e-01
9.153594310517297217e+00 8.690393980266517104e+00 3.714220186021115477e+00
8.213026053815704941e+00 9.727023558166592920e+00 3.605780509456031790e+00
8.099558465503150728e+00 1.026105542854305241e+01 2.283313464565924544e+00
6.940967689530182838e+00 1.107768335296871420e+01 2.154953469053882298e+00
6.399871985414194775e+00 1.100501807569581914e+01 8.324862954327300057e-01
5.107378415998985233e+00 1.154235394968253026e+01 7.240460728166303594e-01
7.186140789086410408e+00 9.767701348680560614e+00 4.597646223727701376e+00
6.199480656755173236e+00 1.079534537087507928e+01 4.520116218825231513e+00
6.116792885682476033e+00 1.149693879210626335e+01 3.268276925103398067e+00
4.896062519748939579e+00 1.222633105323254554e+01 3.094199048619330039e+00
4.438062042183357647e+00 1.223192896958119036e+01 1.754453448132115900e+00
3.062306338353309343e+00 1.225417087119693349e+01 1.447177299136867878e+00
5.113879336840868817e+00 1.082432981861819954e+01 5.458441278462898616e+00
4.051854165931651153e+00 1.177587551012859457e+01 5.336688328272413351e+00
3.868782661676850587e+00 1.242906681317633222e+01 4.071345993738416880e+00
2.528377881080204226e+00 1.281418680007804944e+01 3.699185543455678182e+00
2.058066825790508592e+00 1.256566684068215167e+01 2.374185413091479457e+00
7.391912389651213999e-01 1.211565932229890485e+01 2.068466187156255298e+00
2.968950612498749475e+00 1.176949141678651500e+01 6.267744679386280104e+00
1.848592071914557433e+00 1.259818685348123068e+01 5.962024988663667813e+00
1.475767184204246352e+00 1.297760307598488261e+01 4.637025192875891655e+00
8.169057007479540999e-02 1.301700781337809687e+01 4.264864920339503485e+00
-2.908047402266946690e-01 1.245006797771827145e+01 2.999522467822618221e+00
-1.591339437371281917e+00 1.186530700862766530e+01 2.877770298804003257e+00
7.971792621184836669e-01 1.260582802997073237e+01 6.889032892287152876e+00
-5.205630846290167923e-01 1.300174867731358930e+01 6.581757283915895762e+00
-9.587028019908494514e-01 1.313527576675996578e+01 5.242011854498763057e+00
-2.343118076122196136e+00 1.281032945729854511e+01 5.067934507712663184e+00
-2.634629719456238917e+00 1.216683036243660965e+01 3.816095121391686273e+00
6.783397324710586318e+00 1.005157311255194053e+01 -1.593791822194727537e-01
2.500811161986109532e+00 6.824315598691923057e+00 -2.605832551964900290e+01
3.601414177401260464e+00 5.919555695085368718e+00 -2.625132293330302247e+01
4.023276569863579510e+00 5.167197525073274456e+00 -2.509617898363296717e+01
5.041779967225532566e+00 4.179370568063236924e+00 -2.503677955913641995e+01
5.806683723575000400e+00 3.780707364674529281e+00 -2.388163521604487016e+01
1.932021663817745871e+00 7.006613267788563526e+00 -2.017668768393548717e+01
3.481056915575773125e-01 7.071962033289634242e+00 -2.473243071990861353e+01
1.664292984786265084e+00 6.567327064713894380e+00 -2.492528491904660370e+01
2.245280971354501887e+00 5.999241268171727981e+00 -2.375509328148450550e+01
3.523179106330472266e+00 5.408579756904216218e+00 -2.379893467490301617e+01
4.320190749849379230e+00 5.238854078638227385e+00 -2.262986786190529642e+01
5.610171603240679872e+00 4.637902859037173364e+00 -2.274997509873400148e+01
-1.868993899283273752e+00 7.034985692937873125e+00 -2.348503868633002512e+01
-4.700145405168481005e-01 6.774121265322266439e+00 -2.360514542953847439e+01
2.771706978659072007e-01 6.448929786361376593e+00 -2.243607925022097760e+01
1.660337009991103674e+00 6.186716391236689816e+00 -2.247992018802944614e+01
2.463307111467365917e+00 6.311241783841200714e+00 -2.130972828261468521e+01
3.827622564609950206e+00 5.956772133016411175e+00 -2.150258244214631276e+01
6.638092366360547558e+00 5.189085853316758090e+00 -2.191614230415293818e+01
6.148394587664510524e+00 6.344852952899453946e+00 -2.118471894974445746e+01
4.807891046990057760e+00 6.643646508758983771e+00 -2.075064035579652355e+01
4.236159182693286951e+00 7.759957734677990437e+00 -2.004033269612548196e+01
2.868161764218922549e+00 7.914322031188041784e+00 -1.956631278864941947e+01
2.336733747936438732e+00 9.075943965191292762e+00 -1.888095497760952668e+01
6.927980283443904597e+00 7.539194950729559253e+00 -2.124130623222847802e+01
6.304334959058289556e+00 8.804224064886495782e+00 -2.099690053248721355e+01
5.073668208496115994e+00 8.900105539460678727e+00 -2.026398050305209964e+01
4.399324080601703102e+00 1.013733091474706960e+01 -2.006993664133164756e+01
3.188997611235798502e+00 1.017009569255706936e+01 -1.929263861481117104e+01
2.514804330966726731e+00 1.140997965208232401e+01 -1.934864316093072034e+01
8.014781054670141458e+00 4.826508207778981152e+00 -2.217301497677305022e+01
8.172429222190420006e+00 7.398432051003683618e+00 -2.191361903853363202e+01
9.968022720887301347e+00 6.075297631047368085e+00 -2.277226750448703996e+01
8.718605739544438293e+00 6.086378530046852475e+00 -2.212068255076138712e+01
2.266721764566449693e+00 8.107084596313377745e+00 -2.666869994153174872e+01
1.063858017539741851e+00 8.776684543243071346e+00 -2.619467983463770366e+01
-5.025995327836518811e-02 8.200690499315101079e+00 -2.548437229645620761e+01
-1.314707580631786499e+00 8.736787257841802656e+00 -2.505029400510042237e+01
-2.385010524411837807e+00 8.081002622492293952e+00 -2.431887096569460027e+01
-3.715978839918375520e+00 8.586232886405998244e+00 -2.406199812324503284e+01
1.045139310073613270e+00 1.019125443588094981e+01 -2.597103207748837050e+01
-1.198345725865213041e-02 1.082861238622243860e+01 -2.523811180838755774e+01
-1.254791836418427842e+00 1.016178425332263480e+01 -2.499370621022559646e+01
-2.349218422889751245e+00 1.077063424350865262e+01 -2.432139355345985265e+01
-3.556325762925542033e+00 1.002051091353097867e+01 -2.411433024475737597e+01
-4.579411815596418300e+00 1.073777056562558307e+01 -2.346274577760613766e+01
3.374383089577582595e+00 8.743376159356882837e+00 -2.735405818938452427e+01
2.313038661396332074e+00 1.080598845590061963e+01 -2.616507631123193178e+01
4.586243399498338924e+00 1.074608135927773844e+01 -2.688637036581824447e+01
3.316921434969578808e+00 1.012909626982418487e+01 -2.694237464273309968e+01
1.039363963905010912e+01 7.161249289569072474e+00 -2.357139179335029056e+01
9.625714072368221963e+00 8.331531243342720217e+00 -2.367983146991537424e+01
9.596671288587376836e+00 8.876711441887666254e+00 -2.500229851480548149e+01
8.579164114559173271e+00 9.863571565675503194e+00 -2.513065851031752374e+01
8.033350965606130600e+00 9.875933198410987046e+00 -2.645312568393867636e+01
6.840138668022672341e+00 1.060772133807187245e+01 -2.656156590655477601e+01
8.617646306382820143e+00 8.531399721949155079e+00 -2.268796575564370244e+01
7.802792268498996542e+00 9.699972933189448199e+00 -2.276549576054617319e+01
7.830211485595836685e+00 1.040588991324705148e+01 -2.401733505426800974e+01
6.737755081397284407e+00 1.131623858371826508e+01 -2.419141293075207599e+01
6.286196615365695628e+00 1.139298964802975789e+01 -2.553115853123929213e+01
4.930635500146230754e+00 1.162889751503159630e+01 -2.583843468023453838e+01
6.734904349331869433e+00 9.897420941808316996e+00 -2.182717070090850697e+01
5.833768426341075397e+00 1.100254116828699225e+01 -2.194892365109899401e+01
5.754498304858242541e+00 1.167625498133183015e+01 -2.321426598563298782e+01
4.490287336839069887e+00 1.226512933847225639e+01 -2.358642643591572607e+01
3.987051514927412832e+00 1.209276818713372492e+01 -2.491142656627992835e+01
2.614241554480298824e+00 1.185332635156054515e+01 -2.521714579221514896e+01
4.763045479886511835e+00 1.116463137348479151e+01 -2.101786729998512726e+01
3.785182007054641584e+00 1.215746691614015873e+01 -2.132358699070773866e+01
3.475893501260255647e+00 1.259024363337275609e+01 -2.264858678649551393e+01
2.104903249280955180e+00 1.284595454117568281e+01 -2.302074705903190122e+01
1.648777457591514839e+00 1.234383623279580000e+01 -2.428608951154878781e+01
2.731304720803766628e-01 1.196842810728055362e+01 -2.440784168056740100e+01
2.747747719891603602e+00 1.232851481586400055e+01 -2.039657908708425182e+01
1.507603054427844924e+00 1.292453432907290711e+01 -2.070385469545551160e+01
1.095557338322000973e+00 1.312456988437433125e+01 -2.204360012487264342e+01
-3.225474177500116113e-01 1.301885963848156536e+01 -2.221767747165874241e+01
-7.105800247670233105e-01 1.242852005893515610e+01 -2.346951685797971976e+01
8.263945562717438520e+00 8.874446745477188259e+00 -2.744499116159087748e+01
-4.818555420600670658e+00 5.441218936696456510e+00 5.125231028204032313e+00
-3.499706012103277697e+00 5.980249286881993420e+00 4.932233614550016298e+00
-2.637259795964987941e+00 5.994292734703846826e+00 6.087377564220068038e+00
-1.284286480107392991e+00 6.421626882661688462e+00 6.146776988716618817e+00
-5.702405891826751727e-01 6.905515890459137829e+00 7.301921331808165050e+00
-5.249063070908917439e+00 5.027193458723471231e+00 1.100686886391754982e+01
-6.058643649458524294e+00 3.664240944815275292e+00 6.451125827944421687e+00
-4.989575517058261411e+00 4.582989425441126308e+00 6.258271628806435061e+00
-4.213749381743103761e+00 4.824572372959178068e+00 7.428463266368531492e+00
-3.087150847076362226e+00 5.668776380267028792e+00 7.384621872950022592e+00
-2.559344174521684501e+00 6.289626186721309686e+00 8.553688685947740566e+00
-1.417952755225599937e+00 7.139578302086294848e+00 8.433581449119035511e+00
-7.078814900137651023e+00 1.695447287587512619e+00 7.698517861523012762e+00
-6.184974663889999391e+00 2.802805914191596415e+00 7.578411118314560824e+00
-5.544003185689254209e+00 3.305986639755500001e+00 8.747477297632061166e+00
-4.656484025015465988e+00 4.398787925908534291e+00 8.703636359823590851e+00
-4.384814219198080565e+00 5.164596696996493819e+00 9.873828265238349999e+00
-3.425052368842100403e+00 6.197002905637631898e+00 9.680974105706724231e+00
-1.414967929206523589e+00 8.305946545502402856e+00 9.267414243700098808e+00
-2.664657708720428619e+00 8.423747045994197435e+00 9.998837598108577751e+00
-3.564113578803011606e+00 7.385861469758593145e+00 1.043291619205651344e+01
-4.818029892414864790e+00 7.412730712827914736e+00 1.114322385172755503e+01
-5.603430220936528094e+00 6.282070906808599808e+00 1.161724375920361751e+01
-6.878086923922614560e+00 6.365925206519636781e+00 1.230260157024351031e+01
-3.345621030266567431e+00 9.676941212735130193e+00 9.942250315624558965e+00
-4.755071091351531720e+00 9.728735764575164424e+00 1.018665601536582344e+01
-5.423794798849176146e+00 8.691170098635712549e+00 1.091957604480093735e+01
-6.832847783996719215e+00 8.685143729494624765e+00 1.111361990652138942e+01
-7.436365531969418186e+00 7.635510450203881305e+00 1.189091793304186417e+01
-8.847686673155482850e+00 7.630879177240886158e+00 1.183491338692231665e+01
-4.421953463615082569e-01 9.345392453488162943e+00 9.010541571079986767e+00
-2.630853842546780008e+00 1.070532597654958451e+01 9.269937509319404967e+00
-6.138068229566071565e-01 1.165735645221622185e+01 8.411289043365997031e+00
-1.216801695250824711e+00 1.056302434376950750e+01 9.062873997091649869e+00
-6.058650841274017651e+00 5.844279099535762079e+00 4.514856606321288268e+00
-7.219094429428606574e+00 5.103592957131112939e+00 4.988876713215333325e+00
-7.241171199101222200e+00 3.849583145454515076e+00 5.699184251396829382e+00
-8.313361586603724263e+00 2.991308533357800226e+00 6.133262542752614621e+00
-8.244411770811460372e+00 1.737973860444398166e+00 6.864685582158434940e+00
-9.321022074576937655e+00 8.064994752449825555e-01 7.121558424608002369e+00
-8.472924503418576947e+00 5.758778821390290403e+00 5.212524470364666485e+00
-9.535792286992265332e+00 5.131048165203351274e+00 5.945444739465481021e+00
-9.539031532017041570e+00 3.720650372583108378e+00 6.189850337627442300e+00
-1.059452231665602540e+01 3.046553148685125834e+00 6.862162994393184334e+00
-1.050750327281489938e+01 1.628025451897343601e+00 7.069226303095661024e+00
-1.162453020307647478e+01 1.068188585691704162e+00 7.720810770246898436e+00
-6.092706747015954605e+00 7.121236718021928702e+00 3.829498358468510943e+00
-8.411924410262971108e+00 7.166523709176824575e+00 5.018480236621105206e+00
-7.279847870946963617e+00 9.138692908481360178e+00 4.297186182034792523e+00
-7.339542310045853668e+00 7.728627156757764460e+00 4.241181905119937312e+00
-1.367447317732064960e+00 1.254756247910384381e+01 7.612164754502746433e+00
-2.762018314767641591e+00 1.242739067908753015e+01 7.503725077937662746e+00
-3.255613350212027246e+00 1.266069064299645142e+01 6.181258033047555500e+00
-4.607262747953613236e+00 1.223377418898440894e+01 6.052898037535513254e+00
-4.877302664086805351e+00 1.175928156814747538e+01 4.730430863914360629e+00
-6.087894505954991153e+00 1.105661745147797603e+01 4.621990641298260982e+00
-3.416565972162455722e+00 1.163510575953004356e+01 8.495590792209332776e+00
-4.831915502609271051e+00 1.147282156514254403e+01 8.418060787306863801e+00
-5.440163571618104932e+00 1.183213324425536683e+01 7.166221493585029023e+00
-6.760063433060593319e+00 1.130292624064785834e+01 6.992143617100960995e+00
-7.042017941508391665e+00 1.094195888854561005e+01 5.652398016613746634e+00
-7.893278614608790988e+00 9.860962253379224052e+00 5.345121867618498612e+00
-5.512736484919897428e+00 1.062674053234707472e+01 9.356385846944530016e+00
-6.913209966930926598e+00 1.035839245081740501e+01 9.234632896754044751e+00
-7.543774270365504186e+00 1.060851784593230462e+01 7.969290562220048280e+00
-8.662301075917337556e+00 9.775511144026769017e+00 7.597130111937309138e+00
-8.749552807859458881e+00 9.250780933138408102e+00 6.272129981573110413e+00
-9.190655226969749236e+00 7.928900365166962061e+00 5.966410755637886254e+00
-7.564259182274626347e+00 9.493027913824029440e+00 1.016568924786791150e+01
-8.902344008443092704e+00 9.103838520037033533e+00 9.859969557145298324e+00
-9.430079449344912490e+00 9.037127417428022724e+00 8.534969761357523055e+00
-1.030609448273596129e+01 7.951954619821787418e+00 8.162809488821135773e+00
-1.008076321547093102e+01 7.312111394142769782e+00 6.897467036304249177e+00
-1.040355076825255232e+01 5.923175079829546164e+00 6.775714867285634213e+00
-9.545470782472136761e+00 8.272024095595853055e+00 1.078697746076878516e+01
-1.065885887760389750e+01 7.463590424214663344e+00 1.047970185239752716e+01
-1.103055297966834125e+01 7.195935067390941242e+00 9.139956422980393569e+00
-1.161085728003337536e+01 5.897689068260338452e+00 8.965879076194294584e+00
-1.127555206096760543e+01 5.275884811797979523e+00 7.714039689873317229e+00
-3.886419256134628686e+00 1.148670303731291931e+01 3.738565386262157730e+00
6.944271117884615485e+00 2.145329461825797868e+00 -2.995627008813063696e+01
6.891347720754987805e+00 7.215610133934955428e-01 -3.014926750178464943e+01
6.548419547727677426e+00 -6.990026948907890336e-02 -2.899412355211460124e+01
6.379668816682563914e+00 -1.478685014652543650e+00 -2.893472412761804691e+01
6.525967968950815212e+00 -2.328747756018887838e+00 -2.777957978452650423e+01
6.744668905672972947e+00 2.708279628594495669e+00 -2.407463225241711768e+01
5.836966695668430738e+00 4.007947650162409836e+00 -2.863037528839024759e+01
6.232981795435861727e+00 2.655107126256400107e+00 -2.882322948752823066e+01
6.133063958288677675e+00 1.848704659376871007e+00 -2.765303784996613601e+01
6.437441949967283250e+00 4.742015846441943738e-01 -2.769687924338464313e+01
6.785324840461500528e+00 -2.626917999569615692e-01 -2.652781243038692693e+01
7.088837808915755545e+00 -1.653041701397684804e+00 -2.664791966721563199e+01
4.464216387250394824e+00 5.749342044373745964e+00 -2.738298325481165563e+01
5.104324921092265654e+00 4.478336709706519869e+00 -2.750308999802010845e+01
5.298338398439780939e+00 3.686886111719892778e+00 -2.633402381870260456e+01
5.927792692660622365e+00 2.427643401569155035e+00 -2.637786475651107665e+01
6.513375199818658423e+00 1.864295654099961119e+00 -2.520767285109631928e+01
7.058013988458112564e+00 5.641518239992868722e-01 -2.540052701062794327e+01
8.150141756508000768e+00 -2.136836822560617577e+00 -2.581408687263456869e+01
8.772897855545433998e+00 -1.046985298705506828e+00 -2.508266351822609153e+01
8.198393901366152647e+00 2.004811490261723117e-01 -2.464858492427815406e+01
8.740056944884644352e+00 1.331688126131309158e+00 -2.393827726460711247e+01
8.033994833486607590e+00 2.513517880299698692e+00 -2.346425735713104999e+01
8.636124478938322468e+00 3.640115032841627851e+00 -2.277889954609115719e+01
1.019539702366792966e+01 -9.435310501921476689e-01 -2.513925080071010854e+01
1.082391734401916850e+01 3.190830465128962068e-01 -2.489484510096884406e+01
1.015453787055727908e+01 1.356225769870515352e+00 -2.416192507153373015e+01
1.073022086471210734e+01 2.642326746590134334e+00 -2.396788120981327808e+01
1.002295345535526927e+01 3.625045681369729600e+00 -2.319058318329280155e+01
1.060084286594447711e+01 4.912637480573518900e+00 -2.324658772941235085e+01
8.695827192342079570e+00 -3.451736704179700244e+00 -2.607095954525468073e+01
1.083742197645573846e+01 -2.018831619839711156e+00 -2.581156360701526253e+01
1.087275628901384472e+01 -4.248986814482382357e+00 -2.667021207296867047e+01
1.012455359506743413e+01 -3.248307890770141704e+00 -2.601862711924301763e+01
7.822935055376423641e+00 3.108783577076982940e+00 -3.056664451001337923e+01
7.626819102447773169e+00 4.471422126306479505e+00 -3.009262440311933418e+01
6.493550264540333572e+00 5.008757898955455978e+00 -2.938231686493783812e+01
6.153913283618332564e+00 6.339499894239559730e+00 -2.894823857358205288e+01
4.983714986783789769e+00 6.793634043484326313e+00 -2.821681553417623434e+01
4.579217692746071044e+00 8.158594195127143678e+00 -2.795994269172666691e+01
8.740828789965730650e+00 5.343397348020308080e+00 -2.986897664597000102e+01
8.607366964979615176e+00 6.570557338953481263e+00 -2.913605637686918470e+01
7.323862560693195078e+00 7.155235772208675016e+00 -2.889165077870722342e+01
7.145119152258044615e+00 8.394799670386486667e+00 -2.821933812194148317e+01
5.816980983145738193e+00 8.900608077090138792e+00 -2.801227481323900648e+01
5.767707148489437330e+00 1.014910259806762660e+01 -2.736069034608776818e+01
9.000261105212432611e+00 2.613118431536870290e+00 -3.125200275786615833e+01
9.998092628249708014e+00 4.707194297573707331e+00 -3.006302087971356229e+01
1.132776192988109010e+01 2.862464455603801916e+00 -3.078431493429987498e+01
1.006784531177165931e+01 3.498435339886138529e+00 -3.084031921121473019e+01
1.199455764444370054e+01 -3.929608536216344206e+00 -2.746933636183192107e+01
1.246028354756748868e+01 -2.609620312613007531e+00 -2.757777603839700475e+01
1.287640094853711048e+01 -2.256192468795438888e+00 -2.890024308328711200e+01
1.304498613084757963e+01 -8.487860635852182423e-01 -2.902860307879915425e+01
1.272411378151930172e+01 -4.070783106869062529e-01 -3.035107025242030687e+01
1.258331899976067980e+01 9.855617353703205463e-01 -3.045951047503640652e+01
1.200850227766362011e+01 -1.686559256277458507e+00 -2.658591032412533650e+01
1.244443498159654915e+01 -3.302727339210114188e-01 -2.666344032902780370e+01
1.302263557574450914e+01 7.562709254704436113e-02 -2.791527962274963670e+01
1.308494108517242438e+01 1.496300777950580363e+00 -2.808935749923370651e+01
1.287240193445632208e+01 1.902038234356352220e+00 -2.942910309972091909e+01
1.223874636579431119e+01 3.123381379877715247e+00 -2.973637924871616889e+01
1.195448327094459096e+01 6.389112760790891521e-01 -2.572511526939013748e+01
1.228765845449508554e+01 2.025392781091992056e+00 -2.584686821958062097e+01
1.277559728942625661e+01 2.496656770182319907e+00 -2.711221055411461833e+01
1.247809055331970640e+01 3.859188282525704228e+00 -2.748437100439736014e+01
1.203606074604572385e+01 4.155100952797138980e+00 -2.880937113476155531e+01
1.101379298452167887e+01 5.102153329318142028e+00 -2.911509036069678302e+01
1.176786035323722324e+01 2.975408989697997164e+00 -2.491581186846675422e+01
1.196521923915054941e+01 4.354897611039122651e+00 -2.522153155918936918e+01
1.212211477979821872e+01 4.863168066721943461e+00 -2.654653135497714445e+01
1.149486491531747490e+01 6.108784358723838182e+00 -2.691869162751353173e+01
1.081904290892186360e+01 6.167420091225489287e+00 -2.818403408003041832e+01
9.686889160582127900e+00 7.034347873436346710e+00 -2.830578624904903506e+01
1.147271686931767753e+01 5.283858697355672263e+00 -2.429452365556588234e+01
1.119547611372995100e+01 6.631573657888925055e+00 -2.460179926393713856e+01
1.110495574478868619e+01 7.080574725095522659e+00 -2.594154469335427393e+01
1.016163324298668336e+01 8.144688634822660589e+00 -2.611562204014037292e+01
9.456884872066529724e+00 8.095700299753607609e+00 -2.736746142646135027e+01
1.206710473834302810e+01 -1.197323905936535038e+00 -3.134293573007251155e+01
-7.248272473171202712e+00 -5.365501030964759943e-01 9.023175596685662825e+00
-6.878007413695923944e+00 8.392483074444123670e-01 8.830178183031646810e+00
-6.366625988688952020e+00 1.533870314233584775e+00 9.985322132701698550e+00
-5.886826214087902187e+00 2.869139367168734189e+00 1.004472155719824933e+01
-5.839142490333100177e+00 3.730380546341298231e+00 1.119986590028979556e+01
-7.179740669759753224e+00 -1.129894290989018613e+00 1.490481343239918033e+01
-6.585975682386874475e+00 -2.599759389596191017e+00 1.034907039642605220e+01
-6.669134486900519576e+00 -1.192602662149686354e+00 1.015621619728806557e+01
-6.391253386381435142e+00 -4.290251567555946055e-01 1.132640783485016200e+01
-6.380251351278998229e+00 9.787332101140496787e-01 1.128256644143165310e+01
-6.554367631372633340e+00 1.774797206771299374e+00 1.245163325442937108e+01
-6.538975499164481064e+00 3.197806712263876250e+00 1.233152601760066602e+01
-5.637834223540573397e+00 -4.604235784934706643e+00 1.159646243000464239e+01
-5.977210585693853773e+00 -3.222202073095033370e+00 1.147635568679619134e+01
-5.989149823563448827e+00 -2.407405943351550892e+00 1.264542186611369168e+01
-6.320775115039577230e+00 -1.039221168683230001e+00 1.260158092830522136e+01
-6.765405061513631857e+00 -3.590948804348003121e-01 1.377177283371998051e+01
-7.005211836254932933e+00 1.029968868940180249e+00 1.357891867418835474e+01
-7.465063192803803815e+00 3.906880313609844890e+00 1.316535881218172932e+01
-8.315961880523790484e+00 2.984073223165674804e+00 1.389678216659020826e+01
-8.035256819007550178e+00 1.639665546892183468e+00 1.433086076053814395e+01
-8.816376618075276284e+00 6.584010885174537142e-01 1.504116842020918554e+01
-8.392759746752686212e+00 -6.514821197574018896e-01 1.551518832768524803e+01
-9.231780153719322257e+00 -1.614719375443107952e+00 1.620054613872514082e+01
-9.725525481955930474e+00 3.201644173345846944e+00 1.384019488410618948e+01
-1.062071187226409208e+01 2.111748087978179811e+00 1.408460058384745395e+01
-1.020046138329755969e+01 9.510916208746842404e-01 1.481752061328256787e+01
-1.104940815261259779e+01 -1.735220972293525232e-01 1.501156447500301994e+01
-1.058004926068610096e+01 -1.289616145095483501e+00 1.578886250152349469e+01
-1.143148015810485951e+01 -2.415188994434289693e+00 1.573285795540394716e+01
-7.702587187629163168e+00 5.310559994108750459e+00 1.290848613956161728e+01
-1.011057456023499945e+01 4.393367531513758806e+00 1.316788207780103548e+01
-9.645833042393833878e+00 6.574847769203371328e+00 1.230923361184762754e+01
-9.140597497200593224e+00 5.432086804056310392e+00 1.296081856557328038e+01
-8.320294319318156440e+00 -1.278886488185289938e+00 8.412801174802918780e+00
-8.434155893109085866e+00 -2.650848887397903475e+00 8.886821281696963837e+00
-7.449913307642946236e+00 -3.428212717592802772e+00 9.597128819878459893e+00
-7.416755836136263547e+00 -4.801212396728167242e+00 1.003120711123424513e+01
-6.377897615713219892e+00 -5.505751591723164751e+00 1.076263015064006545e+01
-6.289184584972610459e+00 -6.926619029112536019e+00 1.101950299308963288e+01
-9.715076383142500660e+00 -3.251349569645056725e+00 9.110469038846296996e+00
-9.859678023646491596e+00 -4.477246819678388334e+00 9.843389307947111533e+00
-8.739608461274064766e+00 -5.334379599114120296e+00 1.008779490610907281e+01
-8.842853797775935831e+00 -6.582501493888587518e+00 1.076010756287481485e+01
-7.661629318048568393e+00 -7.372755800449382058e+00 1.096717087157729154e+01
-7.893058259317502490e+00 -8.600602340060779838e+00 1.161875533872852984e+01
-9.356803494605655303e+00 -5.322746119935202191e-01 7.727442926950141455e+00
-1.079803831962714256e+01 -2.349872934019070048e+00 8.916424805102735718e+00
-1.168106208665328971e+01 -2.543258292222938532e-01 8.195130750516423035e+00
-1.059546271100891701e+01 -1.156169965336572902e+00 8.139126473601567824e+00
-1.081065882188840810e+01 6.514667464308020683e+00 1.151010932298437694e+01
-1.156002338951509500e+01 5.332414415220123161e+00 1.140166964641929326e+01
-1.204469132395188780e+01 5.081094050935764272e+00 1.007920260152918601e+01
-1.252402123404118939e+01 3.747131311420453414e+00 9.950842606017143765e+00
-1.231015829119902172e+01 3.244809258139083941e+00 8.628375432395991140e+00
-1.248465270216333600e+01 1.855989194561749711e+00 8.519935209779891494e+00
-1.132631507574060237e+01 4.331650480202511311e+00 1.239353536069096329e+01
-1.205476707071160725e+01 3.107351438257779819e+00 1.231600535578849431e+01
-1.270915068527457237e+01 2.841169768732325629e+00 1.106416606206665953e+01
-1.308786710650314333e+01 1.470487614038918922e+00 1.089008818558259151e+01
-1.297153742218232075e+01 1.027471611321674860e+00 9.550342585095377146e+00
-1.262733432957831248e+01 -3.047155714158833462e-01 9.243066436100129124e+00
-1.179418056032929663e+01 2.053091036546028203e+00 1.325433041542616053e+01
-1.242924080987026692e+01 7.763627388531677553e-01 1.313257746523567526e+01
-1.301028337115171318e+01 4.262718991746412556e-01 1.186723513070167968e+01
-1.302530270851761429e+01 -9.682806454297607779e-01 1.149507468041893965e+01
-1.266072278208540780e+01 -1.355625628859948861e+00 1.017007455005474093e+01
-1.187637247832531529e+01 -2.507465106008091915e+00 9.864355324119516766e+00
-1.213527481616091741e+01 -2.658967572551098613e-01 1.406363381634954202e+01
-1.263639949463438228e+01 -1.566209582264328048e+00 1.375791412562692884e+01
-1.290308126957309476e+01 -2.026465921395778746e+00 1.243291432983915357e+01
-1.257055445296521157e+01 -3.380876588670771454e+00 1.206075405730276628e+01
-1.192500405568133282e+01 -3.589294961232361914e+00 1.079541160478587969e+01
-1.101562139159192988e+01 -4.687638741522671459e+00 1.067365943576726472e+01
-1.236432387738449457e+01 -2.581838521729676650e+00 1.468492202925041568e+01
-1.239577858993271242e+01 -3.957414274810004073e+00 1.437764642087915767e+01
-1.240805557062580533e+01 -4.415284530767942250e+00 1.303790099146202408e+01
-1.172684958979708547e+01 -5.663544987148720899e+00 1.286382364467592510e+01
-1.102901707999418868e+01 -5.773544585100894189e+00 1.161198425835494774e+01
-1.149293702115090987e+01 3.867945181840962920e+00 7.636509954743788242e+00
5.914215199593014560e+00 -4.224618140301815039e+00 -3.385421465661226392e+01
4.749479926892696824e+00 -5.045172358646209609e+00 -3.404721207026627638e+01
3.912059217774094488e+00 -5.251902255122931962e+00 -3.289206812059622820e+01
2.689064690072612063e+00 -5.971232257726589943e+00 -3.283266869609967387e+01
2.101445374683888812e+00 -6.602670019026752435e+00 -3.167752435300813119e+01
6.241127926380058533e+00 -3.724736151779176829e+00 -2.797257682089874464e+01
6.725095769313922389e+00 -2.215154953121970305e+00 -3.252831985687187455e+01
5.888797214234254618e+00 -3.349884070196946340e+00 -3.272117405600985762e+01
5.186729387995002938e+00 -3.758991977880547175e+00 -3.155098241844776297e+01
4.277674689627284366e+00 -4.833945102274099348e+00 -3.159482381186627009e+01
3.902225459867210589e+00 -5.557182436515167190e+00 -3.042575699886855389e+01
2.980039813095337387e+00 -6.641048942752943773e+00 -3.054586423569725895e+01
7.278704716269519537e+00 -6.796726237316352837e-02 -3.128092782329328259e+01
6.655405064575356633e+00 -1.347299525722944757e+00 -3.140103456650173541e+01
